ply
format ascii 1.0
comment Created by CloudCompare v2.11.1 (Anoia)
comment Created 5/17/25 11:59 AM
obj_info Generated by CloudCompare!
element vertex 107
property float x
property float y
property float z
end_header
115.381 98.736 55.5329 
112.609 65.3145 40.8417 
117.541 64.8102 40.8347 
116.832 55.5344 40.6086 
116.807 55.1489 40.5977 
113.554 55.0298 40.5756 
109.762 35.7999 40.6772 
109.9 36.3203 40.5814 
123.067 31.506 40.5246 
131.596 28.818 40.5171 
141.96 26.6926 40.45 
151.405 23.4076 40.2824 
165.917 17.5705 38.894 
174.829 13.7126 37.973 
186.864 8.03908 36.6231 
191.245 5.72886 36.2122 
192.679 4.32427 36.0597 
193.618 2.3113 35.8516 
193.915 0.884972 35.7263 
193.87 -1.68431 35.5414 
192.891 -3.96498 35.3507 
191.314 -6.0826 35.1652 
189.32 -7.23248 35.0457 
186.825 -7.39406 35.0004 
184.952 -7.59431 34.9583 
183.099 -8.46977 34.9105 
182.074 -11.527 34.7017 
171.037 -43.1729 32.6402 
169.339 -48.0897 32.3476 
151.521 -42.912 32.1193 
147.76 -50.8918 31.9935 
145.618 -51.1957 32.0747 
139.228 -57.634 31.8666 
133.039 -72.9669 31.602 
131.273 -77.6913 31.5747 
126.49 -89.3614 31.2084 
120.626 -100.394 30.6051 
109.744 -122.773 29.3279 
106.808 -126.835 29.1785 
104.527 -129.32 29.0944 
100.681 -130.925 28.9455 
95.2386 -131.219 28.8448 
93.8167 -131.024 28.8147 
92.0342 -130.615 28.8084 
81.0833 -126.098 28.8314 
64.7186 -119.391 28.8791 
44.0431 -111.283 28.8187 
18.1144 -100.067 29.1328 
15.4536 -108.168 28.5335
25.7408 -112.4 28.6309
37.2305 -116.292 28.6345
87.5736 -136.681 28.5596
91.2329 -138.999 28.5071
96.819 -140.322 28.6884
101.133 -140.679 28.8016
103.76 -139.067 28.9228
107.885 -134.392 29.0813
111.796 -128.444 29.2327
117.035 -118.294 29.6706
127.73 -96.3058 31.179
130.392 -92.7289 31.3163
147.816 -58.099 31.8957
150.896 -54.239 32.0029
170.81 -61.2369 32.0809
172.012 -59.005 32.1148
176.106 -48.0401 32.8755
181.265 -35.3958 33.1096
185.556 -24.7117 34.024
187.499 -18.5952 34.3555
189.17 -13.7439 34.6342
190.038 -12.5802 34.7359
191.516 -10.961 34.8729
194.007 -9.03251 35.1157
197.153 -4.28316 35.5542
198.717 0.188384 35.8975
198.574 3.76606 36.0844
197.907 7.00335 36.2836
194.604 12.033 36.6154
191.137 15.6615 36.9107
187.684 18.1369 37.1847
182.224 19.5922 37.5533
163.883 23.35 39.2008
147.955 29.2876 40.3837
148.626 31.6174 40.3718
144.088 37.1443 40.4863
140.246 35.0913 40.419
138.417 34.492 40.4565
136.506 34.0564 40.4589
133.647 34.3466 40.4675
131.218 35.0726 40.4694
129.572 36.7455 40.4852
128.149 39.3344 40.5104
127.727 41.5644 40.524
127.93 44.0073 40.5247
129.034 46.0378 40.5317
130.981 48.5019 40.5538
132.878 49.1653 40.5852
134.962 49.7869 40.5817
136.546 50.2994 40.5744
138.394 50.2521 40.5704
140.681 49.1538 40.5544
141.417 54.7739 40.924
141.801 61.7981 40.8178
150.337 61.2679 41.6912
154.401 95.029 41.2198
152.982 96.0076 41.268
115.381 98.736 55.5329 

